ply
format ascii 1.0
element vertex 1747
property float x
property float y
property float z
end_header
3.51133 1.53127 -0.589428
-1.83862 -0.539565 -0.102386
1.91377 -0.642181 -2.52323
2.54864 0.247816 1.53396
2.10564 -0.631967 0.229457
2.23117 -0.622878 -0.405996
3.34044 -0.660446 1.7034
1.59967 -0.63331 -2.10544
3.7715 1.47836 -1.73141
3.65201 0.693461 0.15876
0.652452 -0.593843 -1.51403
-1.88802 -0.556476 -0.190894
3.55187 0.0300217 -1.75334
3.43866 1.30842 0.95394
-3.58828 1.77668 1.4438
1.70004 0.121387 -1.23305
1.97513 -0.49985 -1.76464
2.11333 -0.633077 0.237069
1.56975 -0.628022 0.467524
1.25022 1.73838 1.4873
2.11093 -0.633096 0.233385
-0.758997 -0.105952 0.235644
5.47816 -0.164271 -0.683777
1.82214 -0.0857549 -1.23674
-9.55953 -12.7076 1.062
1.56226 2.74895 2.60786
1.98557 1.79158 1.6087
1.83721 1.42614 1.22297
6.25056 1.80211 -3.15665
5.08545 -0.472092 -2.6601
1.99545 -0.0674544 -0.555925
2.70143 -0.439477 0.998077
0.900495 -0.689574 -0.630696
11.103 -2.97923 7.58539
1.63789 -0.317566 0.653359
0.746683 -0.850888 -2.76096
0.883605 -0.367218 0.226788
1.73805 -0.582627 0.412153
0.883142 -0.562171 0.146526
0.741097 -0.697938 -0.607706
-0.35699 -0.0530771 -0.848532
2.8082 -1.11209 -3.40203
2.08581 -0.611252 0.21557
4.13672 0.0347467 -1.51674
1.98447 -0.096705 -1.569
4.46906 -0.923372 -2.2195
2.68164 -0.777112 -1.56659
2.04347 -0.613864 -0.125723
-1.09386 -0.0670244 -1.02986
2.4923 -0.325687 0.481419
2.52902 -0.346395 0.590122
0.877292 -0.403332 1.16408
1.92024 -0.487925 1.02526
0.907926 -0.572541 0.446347
2.33966 -0.62087 -0.0968768
3.86983 1.06221 -0.608576
4.03111 -0.0134647 -1.34253
2.04178 -0.581209 0.293694
1.16656 -0.575419 0.402502
1.54729 -0.61684 -0.106899
-0.582957 -0.180127 -2.56067
-0.347978 -0.583295 -0.716767
-0.0491162 1.99396 0.117873
4.16953 -0.368386 -2.22882
3.19611 -0.805466 -2.6175
1.15087 -0.859176 -3.15254
0.584328 -0.656853 -0.758529
3.7168 0.964065 -1.22903
4.62457 0.501509 -0.8504
3.44511 -0.567905 -0.960647
1.76441 -0.49575 1.25687
2.11965 -0.612707 0.158978
2.71522 -0.22432 0.208665
0.873112 -0.60033 0.509804
0.84348 -0.455292 0.261751
2.09837 -0.59382 0.225936
2.27896 -0.622557 -0.114183
4.76494 2.90542 -4.02236
3.84843 1.55504 -0.617667
3.86837 1.06207 -0.609696
2.6043 -0.527606 0.617304
2.50513 -0.785113 -1.88748
0.892708 -0.589038 0.372888
1.13737 1.5936 1.3084
3.49802 1.61857 -0.375619
3.91199 1.30226 -1.41872
-0.718391 0.127109 -0.881843
-2.28956 -0.203703 1.18895
2.08623 -0.788904 -3.22757
1.85769 -1.76031 5.50053
1.33216 -0.505557 -2.2913
1.6019 -0.642925 -0.0735472
3.49084 1.0499 0.55212
1.57623 -0.166905 0.141458
1.07357 -0.539937 1.21188
-0.448882 -0.68129 -1.08571
0.816659 -0.91794 0.0186564
3.12067 1.7278 1.7086
-1.78755 1.42348 0.986175
2.64369 0.816762 1.70232
3.68151 -0.361294 0.629345
3.60703 -0.387905 0.659522
3.44111 1.33369 1.45271
4.51198 1.2911 -1.49728
-2.06809 -0.186121 1.07748
2.3116 -0.64441 1.66908
2.31151 -0.673906 1.66952
0.464515 -0.587233 -0.399019
0.716204 1.62256 1.67313
2.77939 0.276364 1.8159
0.781427 -0.559866 -1.65143
2.33273 1.7493 1.66081
2.67522 0.270995 1.75734
-0.31428 -0.568051 -0.451635
3.42332 1.56057 0.108022
3.58746 1.40431 0.690201
-1.94345 1.71959 0.164312
2.24582 -0.650153 0.432843
2.04811 -0.646628 0.518031
0.78144 -0.61901 0.138262
1.24029 1.72794 1.47036
4.18465 0.891559 -1.46395
0.792697 -0.644073 -0.156913
3.72357 -5.79686 -0.672982
3.69329 1.47241 -0.953072
0.73163 -0.119714 1.61275
1.1947 -0.83656 0.244074
3.55943 1.42514 1.5833
-0.00823782 -0.49098 -1.42746
-0.398988 -0.634476 -0.375479
0.879684 -0.548064 -1.24824
-0.378365 0.137419 -0.621085
1.7378 -0.353137 0.747461
1.4803 2.18534 2.01071
2.97151 -0.0350494 -0.691675
1.6704 0.641899 -0.0404623
3.64766 1.00811 0.307016
3.64822 1.10295 -2.10287
0.444084 -0.431605 0.177898
-0.389218 1.77452 -0.405953
1.92901 2.06668 1.93455
4.00728 1.34828 -1.45319
-1.87315 1.11713 -1.07323
3.47988 0.555632 -0.243097
3.37997 0.362698 0.442988
3.1603 -0.508695 0.982232
0.90006 -0.566929 1.45782
4.15272 -1.09209 -1.41711
0.803378 -0.582653 0.19028
3.47704 -0.575727 -0.966622
0.788274 -0.569525 1.08702
3.73625 0.915959 -1.06633
3.92071 0.206929 -2.11551
3.11746 -0.605925 1.34084
-0.201996 -0.0228462 -0.611931
3.31256 -0.30403 0.244557
0.786881 -0.622624 1.52278
2.11029 -0.707373 0.574415
-0.292213 1.62476 -0.632768
3.76437 0.890324 -1.24452
-0.330636 -0.577145 -0.589668
1.18362 1.62786 1.35937
1.92843 1.69284 1.52
0.861455 1.51928 1.43687
1.6795 0.780151 1.53197
-1.93498 0.206411 -2.09799
3.41896 1.27022 -0.0850543
0.476763 0.643583 0.15939
3.81004 0.993795 -1.97688
1.76454 0.784921 1.51502
2.6291 0.813857 1.59592
4.08328 -0.117719 -2.074
4.07797 -0.365709 -2.0704
0.693395 -0.22277 -2.19
1.76901 -0.64315 -2.12767
1.47331 1.71708 1.4719
-1.977 1.73893 0.168488
3.81124 0.947044 -0.610484
1.95547 -0.579909 1.54775
2.08342 -0.648455 -2.19462
-2.27767 1.26832 0.551939
1.82229 -0.576875 1.53487
2.31602 1.68053 1.58899
1.97027 -0.788211 2.25457
2.7268 -0.591702 0.766144
1.6424 -0.655698 -0.0542632
-0.429187 0.674328 -0.629874
3.07826 -0.597187 1.37421
3.37516 -0.884436 -2.84374
1.21905 1.817 1.57382
1.48897 2.32179 2.15755
-0.782044 0.362515 -1.5345
2.07589 0.0240602 1.4022
3.17932 -0.507272 0.857495
3.56551 -0.664428 -1.16648
1.80659 -0.555453 1.46882
0.808567 -0.604003 1.4672
1.48921 1.64488 1.40757
3.73239 1.1532 -1.3019
1.14315 -0.563814 1.46244
0.370956 -0.424612 -1.4465
2.50269 -0.526231 1.39408
2.30139 -0.624239 -2.61697
3.48931 1.59666 -0.503229
0.863329 1.52575 1.427
0.764191 0.0466459 1.45774
2.26316 -0.456116 1.15118
0.82164 -0.414606 0.352828
3.72409 -0.112627 -1.95157
1.16153 -0.305574 1.53984
0.802444 -0.580077 0.70364
2.18119 -0.664319 0.200062
0.797828 -0.58705 0.190906
0.8426 -0.632974 -0.261706
0.870644 -0.640648 -0.523597
2.45788 0.795872 1.462
4.78838 0.532351 -0.966535
4.9047 -0.480718 -1.95917
2.58982 -0.627891 -0.857447
2.17865 -0.643723 -1.06652
0.770189 -0.22677 -2.05868
0.912367 -0.330125 -1.82782
0.713728 -0.568918 -1.66762
2.63061 -0.645525 -0.876387
0.709843 -0.586888 -1.37884
0.632869 -0.571451 0.170177
0.685666 -0.610631 -1.24573
3.39827 1.54077 1.42244
3.55682 1.41961 1.57633
-1.24244 1.37995 -1.31217
2.55644 0.333806 1.36986
1.4261 -0.57105 1.49437
0.501866 -0.572756 0.161291
2.44334 -0.641854 -0.366852
0.836261 -0.583008 0.236184
2.80041 1.64133 -0.506777
3.28934 1.66086 -0.625413
2.49199 1.65177 1.00598
1.67206 0.819975 1.53145
2.35152 -0.65913 -1.83568
1.06738 -0.603833 -0.158377
2.97259 1.27203 -2.01703
3.598 1.46001 -2.01431
3.40878 0.997173 -0.112129
3.79299 1.25117 -2.02161
3.70676 0.917435 -1.56658
3.70154 0.741789 -1.28926
3.69826 0.68054 -1.95896
3.72398 0.446072 -1.96569
2.66434 0.275506 1.58337
-0.0663693 -0.00977414 -0.594741
0.780411 -0.476432 1.46145
2.93762 -0.684452 0.9135
2.85533 -0.659823 0.88146
3.04399 -0.66048 -0.565092
0.0360022 -0.643054 -0.188323
0.0875508 -0.637121 -0.900943
0.718979 -0.576977 -1.36455
2.04084 -0.646261 0.510118
0.844838 -0.637928 0.44379
2.16107 -0.651345 0.19497
1.26624 -0.638853 -1.27934
1.67054 -0.642208 0.117305
2.63991 1.66073 0.77545
3.2912 1.65999 -0.622315
3.7367 1.50507 -0.829931
5.19419 3.26037 -4.49538
3.61923 1.47964 -2.03253
3.65333 0.947054 -0.107667
3.80658 0.730261 -2.04388
-2.16006 0.559653 0.225369
1.79053 -0.174658 0.176485
2.5245 -0.635152 -0.530565
1.44802 -0.637084 -0.0921723
3.30497 1.67719 -0.642656
3.02616 -0.629078 -2.10291
2.29721 -0.639086 0.606248
3.78512 -0.0310042 -1.44564
3.57706 1.0349 -0.0803873
3.52209 0.769012 -1.75517
2.57424 0.277155 1.6074
2.16966 -0.592406 -2.0261
1.536 -0.618885 1.53012
1.41207 1.35161 -2.43363
3.69564 1.44146 -0.607321
1.91023 -0.563732 -1.91672
3.2857 0.024303 -1.58304
1.5343 -0.632069 1.57652
3.59291 0.81264 0.601815
0.746324 0.0870878 1.51391
1.75829 1.8541 1.64313
3.60373 0.921808 -1.29711
1.77559 0.851718 1.66568
-0.287475 -0.0367559 -1.31048
1.42006 -0.596275 1.58176
0.770876 -0.630188 0.151022
1.77795 0.860453 1.67126
3.66614 0.697488 0.164231
-2.13493 0.420915 0.200381
-1.93288 -0.576686 0.6397
3.3856 1.01964 0.456309
3.56301 1.06419 -0.147121
2.63293 -0.507897 0.0754191
0.1707 -0.405272 -0.983679
3.84541 1.01377 -1.99327
2.79867 -0.623646 0.818345
3.73942 1.39646 -1.38266
2.55447 0.335514 1.36862
0.631576 -0.30382 -2.18787
2.74256 -0.675029 1.55112
2.77729 -0.62332 0.821418
-0.314656 1.06391 -1.34379
4.34551 0.0500917 -2.26614
3.3181 -0.258222 -0.540899
3.49756 -0.365505 -0.565421
1.07474 -0.647403 0.701578
0.807064 -0.568583 0.220588
1.82041 -0.655536 -1.39226
3.38294 1.4823 0.594573
3.57409 -0.0577435 -0.765488
1.86263 -0.0724767 -1.33847
0.63108 -0.629285 -0.748602
2.25311 -0.65105 0.386349
1.37975 1.51241 -2.69701
3.82507 1.43594 -1.98834
3.69704 0.962471 -0.103337
-2.26901 1.95764 -0.401198
2.59256 0.761789 1.58228
2.45604 0.791516 1.45136
3.67477 0.701797 0.0433338
0.706237 -0.681942 -2.80277
-0.16029 -0.584309 -1.10904
0.865776 -0.566031 0.213404
1.82356 -0.62837 -1.36249
2.23161 -0.652958 0.550141
2.16038 -0.650221 0.192344
3.17375 1.74995 -2.62302
3.72157 0.740336 0.605117
3.89699 0.0317739 -2.0617
1.56139 -0.582098 1.53626
1.26278 1.73678 1.48336
3.75114 0.975623 -0.898476
3.92642 0.752902 -2.14301
2.01754 -0.604262 0.451123
3.82209 0.884556 -1.98746
3.33839 -0.657067 -2.18589
2.07305 0.0179467 1.28202
0.0114982 -0.157998 -0.193934
3.59509 -0.281316 -0.0999067
3.6951 -0.278541 -0.0479619
2.49982 -0.565624 1.17515
0.832807 -0.551245 0.205053
0.815725 -0.480017 0.345983
4.07325 0.779564 -0.0585387
-2.22286 0.482987 0.211497
0.812527 -0.480638 0.34822
-1.69825 1.69311 -0.942106
3.00656 -0.527221 1.28913
3.58109 -0.643462 -1.6905
3.54638 1.60074 -2.42373
3.63186 0.997072 0.304292
1.41967 -0.577392 1.51589
3.81757 1.45352 -1.69762
3.77435 0.835849 -1.31923
3.96098 0.209654 -2.16412
3.77657 -0.00465905 -1.63576
2.69012 -0.530042 1.28964
1.69458 -0.527009 1.36226
-0.434926 2.19052 -0.145042
0.554166 -0.364682 -2.33413
0.690553 -0.495389 -2.28092
1.01565 -0.658354 -0.62056
1.1554 -0.650734 -0.51687
-0.218771 0.612992 -1.34977
-0.184865 0.46991 -1.323
1.36564 -0.746375 -2.41124
2.35465 0.680652 1.22287
1.09704 -0.801027 -2.98743
0.756737 -0.217305 1.47227
1.03357 -0.562486 1.45616
0.787401 -0.565468 1.19439
2.69621 0.8173 -2.48906
-0.272589 -0.562023 -0.708481
3.64238 1.50518 -2.09135
3.62912 1.00741 0.485689
0.772305 -0.571222 1.31521
3.67886 1.55263 -2.13595
3.65927 1.00132 0.125231
3.5852 -0.652631 -1.51174
2.3752 -0.504293 1.31504
0.773575 -0.543656 1.44881
3.68944 1.02177 0.130422
1.72853 0.160588 -1.35065
3.62314 -0.0294415 -1.79726
2.17833 -0.580545 -1.98023
3.26686 -0.7288 -2.3883
-1.64627 1.61452 0.0657149
3.56164 -0.324445 0.41662
1.7588 0.789235 1.54449
2.12892 -0.0153909 1.55551
2.12536 -0.0118111 1.58149
1.30127 1.77437 1.52197
3.72202 1.50161 -0.683389
3.61867 0.403243 0.574871
1.66757 -0.627109 -2.71813
1.21952 1.80389 1.54973
0.74487 -0.0903249 1.5018
3.5201 0.737204 -1.72969
3.43601 0.797141 -1.65761
0.196698 -0.296167 -0.200527
3.35677 1.4705 0.571331
3.41297 -0.615342 0.424594
3.71258 1.37728 -1.35871
3.6643 1.01514 0.315286
3.68791 0.944728 -1.33279
-2.76616 1.46622 0.314851
0.474862 -0.635176 0.174813
3.51606 1.51916 -0.606135
1.7072 -1.1585 3.48372
-0.23448 -0.196929 -1.19938
3.06439 -0.65383 0.553078
3.77826 1.51019 -0.60917
3.5919 0.658301 -0.122695
3.465 -0.6476 0.829296
3.34422 1.45267 0.579021
1.83592 -0.641262 0.164354
0.793628 1.40201 1.42774
0.499351 -0.696649 -2.36939
0.835219 -0.64046 -0.261797
0.860772 1.54668 1.25262
3.56917 -0.642799 -1.70995
3.53196 -0.642583 -2.11597
-0.203233 -0.562398 -1.2188
0.749205 -0.599007 0.883535
2.46582 -0.632803 -1.3628
1.20552 -0.640356 0.616584
2.56147 -0.649834 -0.938178
1.22128 -0.637421 -0.0514835
3.158 1.388 -2.15802
1.07989 -0.643944 0.698293
-0.147604 1.78007 0.0361943
3.46782 -0.583274 -0.393004
0.834032 -0.579397 0.316901
2.45802 -0.621822 0.190987
3.8371 1.24495 -2.04069
3.91424 0.948038 -2.07072
0.0484217 -0.638889 -0.193154
3.95962 -0.0769398 -2.01739
1.18801 -0.659521 -0.631722
1.28135 -0.66374 -0.144531
3.80556 1.41793 -1.95889
3.71392 0.773226 0.61705
4.20761 -0.386085 -2.15545
0.798282 -0.532825 1.42193
1.58938 -0.63329 0.487577
3.8209 0.890644 -1.98996
0.650423 -0.474546 -2.35018
3.53825 -0.638099 -1.99669
0.463727 -0.817728 -2.74441
0.768633 -0.408773 1.4584
0.513814 -0.683577 -2.31847
0.793965 1.44972 1.42748
0.809809 -0.574337 0.705086
0.805564 -0.581483 0.186977
3.41507 1.02435 -0.170344
3.65551 0.735008 -0.107408
3.44361 1.00985 -0.182496
4.04795 -0.0148526 -1.39817
3.55165 -0.641503 -1.69353
3.3885 -0.0581651 -0.94235
-2.10852 -0.436742 0.669051
1.20296 -0.642064 0.608456
3.62361 -0.0136017 -1.16415
1.01945 -0.655972 -2.1266
2.23369 1.56832 1.47496
1.73106 -0.589035 -2.56578
1.63915 1.73439 1.50881
3.6204 -0.358236 -0.13056
1.65327 0.788011 1.5429
3.61043 -0.338291 -1.12084
2.41836 -0.571138 1.54118
0.749718 1.45446 1.49457
0.880919 -0.57888 1.49183
1.97084 -0.579955 -2.49354
0.750898 1.49619 1.47972
0.759219 1.43575 1.47537
3.48655 1.01932 -0.200997
3.52864 1.00341 -0.107146
0.92369 -0.612849 -1.41391
1.31079 -0.632488 -0.147123
-0.295986 1.56868 -0.635232
-1.38852 1.63457 -0.794257
3.46468 -0.360606 -0.562466
3.35795 -0.572387 -1.90794
2.48224 0.312183 1.29059
3.24796 -0.745302 -2.45694
1.08609 -0.686953 1.6766
0.80327 -0.494276 0.286602
2.60124 -0.572712 -1.34701
2.79908 1.59351 0.918429
3.59332 -0.398227 -0.147539
-0.0619275 -0.64326 -0.97548
0.662765 -0.698063 1.02997
2.80528 -0.627345 0.821211
-0.36512 1.76986 -0.40367
3.79507 0.0370062 -1.80592
2.78094 -0.645349 -0.679223
-0.136925 1.77144 0.0365504
1.66138 0.788736 1.50328
2.61253 -0.594775 -1.54497
0.738888 -0.605364 0.22815
1.26147 -0.642659 -1.54949
3.67182 0.694556 0.0808504
0.708947 -0.625888 0.644813
0.826194 -0.486424 0.274304
3.68202 1.01042 0.0416236
0.0535653 -0.606533 -0.194484
2.92968 -0.0291932 -1.02729
-0.234685 -0.043637 -0.962387
0.742613 -0.570014 -1.57685
2.77146 -0.634074 0.849829
1.02346 -0.643937 -1.34611
3.7194 0.0528875 0.556599
1.50235 -0.624457 1.68415
0.686573 -0.685863 1.00449
3.46385 -0.580056 -0.518398
1.05637 -0.638149 -1.5496
0.856947 -0.625347 -2.62119
0.100912 -0.636894 -0.732029
0.812418 -0.482251 0.28581
3.00934 -0.643542 -0.564239
2.34376 -0.640376 -0.0379417
2.34595 -0.647015 -0.0793998
3.85055 0.326105 -0.652956
0.841014 -0.469489 0.322557
0.804779 -0.655891 -0.25984
2.5206 -0.63984 -1.12615
1.34256 -0.55052 -0.0859225
2.77175 -0.638224 -0.675474
2.36167 -0.631102 0.366286
1.69463 -0.668751 -0.839598
2.17186 -0.666458 -0.8091
2.44726 -0.622225 -0.337847
-0.444026 -0.621804 0.461733
1.4929 -0.602444 -1.99194
0.508871 -0.683824 0.16661
3.20977 1.79516 1.79987
-2.04917 -0.433836 0.477179
3.73308 -0.326899 -1.92643
-1.32202 -0.668149 1.4245
1.75737 -0.668438 0.118645
2.16654 -0.0178679 1.67172
1.69923 0.755634 1.42624
0.34928 -0.56389 1.41618
1.25889 -0.626025 -0.0615841
3.41434 1.0401 0.227915
-3.5123 1.759 1.23519
2.87184 -0.65883 -2.21519
1.41739 -0.633476 -0.798887
1.10381 -0.636054 -0.789367
0.837264 -0.559723 0.191956
0.905288 -0.631204 -0.599504
0.0720012 -0.161689 -0.197845
1.89059 1.48948 -1.94312
3.16226 -0.502943 0.793863
3.43485 1.23155 -0.100128
1.92065 -0.289637 0.427044
4.03147 1.14509 0.394824
0.792423 -0.608378 -3.47219
0.466068 -0.628946 -0.484979
2.73172 -0.924666 -3.00343
3.69747 0.671701 0.658749
0.985506 -0.614791 -1.14375
-0.0863324 -0.612686 -0.846946
-0.221019 -0.0244767 -1.2764
1.04345 -0.645552 -1.55482
3.29325 0.928824 0.53415
0.988564 -0.613286 -1.27725
3.61552 0.72537 0.561418
-0.181808 -0.608832 -1.39484
1.04193 -0.625208 -0.212059
0.794764 -0.597938 0.336557
0.865074 -0.638051 -0.258235
0.852252 -0.665136 0.0959193
1.12321 -0.634338 0.466195
-0.294868 -0.60219 -0.377856
3.42665 1.04565 0.0768328
0.530447 -0.639751 0.141666
3.62388 0.598975 0.516321
0.80791 -0.615956 -3.52645
2.77809 -0.607866 0.773582
3.19034 -0.638003 1.57189
1.72925 -0.635057 -0.657969
0.683927 -0.642561 0.00794525
3.56636 0.376864 0.551677
0.562269 -0.645438 0.121241
1.14051 -0.564282 1.46642
1.15292 -0.59487 -1.93359
0.424369 -0.631431 -1.70649
0.829003 -0.491068 0.271022
-0.166006 -0.60202 -1.36804
1.06285 -0.654405 0.720423
1.22799 -0.634907 -0.601264
0.928502 -0.642163 -0.838649
1.02288 -0.633496 -0.843152
0.739522 -0.623406 -0.88151
0.597153 -0.629769 -0.720442
0.788297 -0.6357 -0.129884
-1.86654 1.74422 -0.277223
3.67797 0.703893 0.044317
2.41774 1.58723 -2.06891
-2.02953 -0.184016 0.466992
2.40745 -0.770583 -2.53442
3.41055 1.67383 0.267422
2.28017 -0.640594 -2.1471
2.80286 -1.19667 3.67935
4.01188 1.57977 -2.09207
-0.0612163 -0.17813 0.586603
0.781419 -0.629237 -1.37552
1.9792 -1.17079 3.54664
3.68292 -0.155373 -0.0977816
-0.166319 -0.603793 -1.3617
3.69794 -0.667526 -1.48734
0.836649 -0.657131 -0.920968
1.10114 -0.604193 -1.96071
-0.175243 0.840487 -1.45704
0.895793 -0.636009 -0.849116
3.67299 0.359437 -0.10275
2.90373 -0.0352099 -0.646948
0.109595 -0.05365 -0.142088
-0.332802 1.39449 -0.641078
-1.8282 1.75183 -0.161782
1.3014 -0.561618 1.4607
-0.236149 0.414205 -1.28778
0.788667 -0.197354 -1.96224
-2.40154 -0.209193 0.547235
-0.719981 -0.565847 1.34654
3.68384 0.951653 -0.0986453
0.263343 -0.566635 1.42564
3.38851 0.949658 0.574311
-0.46415 -0.559335 1.35106
0.521352 -0.622496 -1.4838
3.56017 0.823649 -1.13802
1.23078 -0.637011 -0.60329
3.54919 -0.00857559 -1.46038
0.715932 -0.631248 -0.838948
1.14399 -0.642754 -0.106848
3.70782 0.73939 -0.0873694
3.33602 -0.571332 1.06638
0.62684 -0.627317 -0.76931
1.74828 0.795035 1.52753
0.766831 1.62168 -2.82793
1.86126 -0.0713858 -1.33281
3.27967 1.25055 1.37356
-0.222329 0.486941 -1.27835
3.70771 0.963892 -0.645488
0.740812 -0.0483045 -3.50739
1.88934 -0.584478 -1.95285
-0.255591 -0.605565 -1.14002
4.20902 -0.409516 -1.64481
2.43751 -0.662324 -0.0755746
0.277235 -0.588157 -1.52535
3.4057 -0.306919 0.217868
1.62292 -0.658057 1.78778
0.0820522 -0.150298 0.45259
0.838056 -0.57795 0.311811
3.12332 1.565 1.51085
0.810308 -0.632511 -0.890698
0.738651 -0.574923 0.177377
3.42404 1.29835 0.637167
0.32874 -0.626597 -0.800708
0.0367557 -0.597912 -0.145472
0.872099 -0.643308 0.139585
0.401401 1.76282 1.40042
3.46289 -0.0048137 -0.560824
-3.55143 1.78397 1.24647
0.868044 1.51063 1.42052
3.62317 -0.368474 -1.98478
-0.282584 0.0058437 -0.367001
1.03259 -0.633465 -0.603512
0.793943 -0.609638 -3.49223
4.64162 0.613228 -0.916637
1.75113 0.168173 -1.37156
2.47179 0.23543 1.45974
-1.64931 -0.588506 -0.484009
-0.672862 0.743316 -0.711255
0.0900272 -0.610291 -0.909379
2.55052 -0.653223 0.515096
2.5049 0.735959 1.52211
3.4894 -0.31227 -1.40152
-0.324184 0.0186603 -1.47106
1.40967 -0.491223 1.22178
-0.0711585 -0.194749 0.641136
0.554368 -0.638419 -0.175104
0.886547 -0.374373 -1.99366
0.462398 -0.640503 0.17801
0.422477 -0.608828 1.0115
1.2242 -0.633732 -0.612358
0.794011 -0.6401 -0.12878
3.06914 1.61429 -2.45522
3.60049 0.0352148 0.609413
0.616705 -0.62374 -0.144413
-2.14646 -0.191795 1.09448
3.56075 -0.602526 -1.12559
0.458054 -0.558062 0.139978
3.45061 0.382035 -2.2721
1.64749 -0.639336 -2.13029
-0.324109 -0.613297 -0.11072
-0.278722 0.524765 -1.30819
0.846258 -0.362323 -1.8877
2.82869 -0.0459696 -0.660621
-0.219524 0.471664 -1.27327
0.566485 -0.667239 1.74445
-0.228827 0.406485 -1.2606
-0.279722 0.174548 -1.28714
1.78187 -0.665099 -1.48524
3.15368 -0.61381 1.56101
-0.250833 -0.0283489 -0.620034
-0.281038 -0.0395651 -1.08116
3.59546 0.366872 -1.49247
-0.0941433 -0.163182 0.601107
3.53694 0.391416 -2.34667
0.077438 -0.14886 0.44953
0.873188 -0.56426 0.180328
3.03066 -1.44814 3.75083
0.539262 -0.624507 -0.344696
2.67047 -0.63608 -1.3351
3.42168 -0.575599 -0.0171112
-0.379092 -0.507165 -0.346299
2.57501 1.628 0.784372
0.496395 -0.545011 0.153992
2.56925 -0.617268 0.455997
-0.279492 -0.519368 -0.356761
3.35385 -1.18848 3.63981
2.41114 1.61534 0.881878
1.46459 -0.59673 -0.698534
0.745992 -0.45119 0.38484
0.463582 -0.612117 -0.153906
0.4721 -0.633698 -0.0351136
1.02998 -0.567264 1.47068
3.73282 0.616864 -0.0458042
-0.0915373 0.809073 -1.23312
0.169481 -0.561701 0.394844
-0.308841 -0.567102 -0.581208
3.41231 -0.359225 0.595495
3.71093 -0.374597 -0.045354
0.396554 -0.625887 -0.216655
1.79481 0.115332 -1.19566
0.736977 -0.608601 -1.27065
0.248051 -0.648278 0.37651
-0.174985 -0.606108 0.307357
1.66669 0.871963 1.6591
0.00660444 -0.0208386 0.00733415
-0.287376 0.815242 -1.26372
2.26172 -0.58156 1.38587
3.50895 0.825807 -1.68607
-0.236332 0.415015 -1.28025
-0.272905 0.34469 -1.29291
2.52249 -0.59225 1.23939
-0.274606 -0.0575851 -1.25704
-0.234865 0.209567 -1.31425
-0.260952 0.141392 -1.28972
-0.231461 0.102653 -1.27981
0.838993 -0.638781 -0.2595
0.687996 -0.632944 0.801703
-0.283537 0.0135859 -1.29192
2.59753 -0.663109 -1.2697
-0.0972219 -0.164962 0.610372
3.80576 1.50324 -1.79752
-1.54201 0.515403 -1.10114
1.86719 -0.631992 -1.352
0.212659 -0.375161 -1.0035
4.47985 1.59778 -2.16446
3.42755 0.0294489 -1.20747
0.0265368 -0.184738 0.485232
3.70302 0.441098 -1.95494
1.49107 -0.584791 1.43103
3.58459 1.00433 0.337309
0.871901 -0.562172 0.178997
1.64103 1.71689 1.49495
2.61583 0.701445 -2.19095
-0.179319 -0.620673 -0.914435
2.53984 -0.656719 -0.520494
0.759642 -0.589519 -1.23995
0.454423 -0.581973 0.604393
1.71196 -0.616035 -0.115935
3.43014 -0.576707 -0.0168543
0.455211 -0.566955 0.456902
1.87029 -0.62654 -0.56466
-0.195301 -0.632929 0.64175
2.36195 -0.63861 -0.481044
0.529166 -0.566639 -0.0404964
3.49971 -0.00952823 -1.12493
0.498194 -0.605232 0.154269
3.25271 -0.539137 0.928594
0.506494 -0.678294 -0.222137
0.531723 -0.641248 0.040496
1.17225 -0.488678 -1.64137
-0.286689 -0.558827 -0.44983
1.2182 -0.922115 2.66181
0.133081 -0.598019 0.479844
1.51141 -0.646165 -1.49223
3.18121 0.811885 -0.140957
-0.275114 -0.602237 -0.392222
3.50924 -0.592537 -0.655628
-0.168262 -0.610734 -0.454519
5.01629 -0.0494451 -2.50262
0.156746 -0.612592 -0.877835
3.74775 0.87101 -1.76215
3.0936 -0.651082 0.645531
0.428738 -0.637221 -0.0698361
3.63289 0.635166 -1.84309
2.83098 -0.648623 0.865761
-0.0594449 -0.632048 -0.425794
3.91699 0.514573 -1.43641
0.227216 -0.639516 0.32315
3.61422 0.988966 0.295661
3.9363 0.0340457 -2.09569
0.154904 -0.644695 0.257196
3.3866 -0.649712 -2.14392
3.84912 -0.0137187 -1.28916
-0.242816 0.635009 -1.33314
1.90831 -0.611461 -2.61659
-0.260203 -0.549624 -0.440328
-0.218565 0.471395 -1.27024
-0.252079 -0.0282761 -0.624154
4.00698 -0.413013 -1.33242
2.71132 -0.642704 1.41233
-0.281875 -0.0232297 -1.26664
0.731617 -0.61875 1.49193
1.47461 -0.676511 1.71864
-0.223846 -0.0252508 -1.28001
2.42482 -0.556015 -1.93565
3.514 -0.59384 -0.655566
0.074439 -0.138146 0.416899
3.43776 -0.563464 -0.750894
1.235 -0.637993 -1.31631
-0.176397 -0.598887 -0.884417
2.59337 -0.629666 0.645555
1.15436 1.89662 1.65628
0.108385 -0.611001 -0.818069
1.50535 -0.578736 -2.54951
2.41614 -0.619582 0.784804
3.5405 -0.686034 -0.617729
0.603833 -0.645701 -0.047297
2.8262 -0.687099 -0.699853
-0.359247 -0.561659 0.405085
0.486791 -0.623329 -0.270897
2.56079 -0.648886 -0.926766
3.68965 0.028056 -1.35528
0.508891 -0.616516 0.13428
2.51197 -0.630035 -0.642848
0.496468 -0.606603 0.152737
1.84221 -0.609689 0.14194
0.153638 -0.551641 0.42577
1.60152 -0.60638 -0.356723
-0.368459 -0.586465 0.289838
1.36708 -0.394831 -0.99489
-0.0959253 -0.625564 -0.481127
1.80413 -0.618662 -0.131576
2.30279 -0.624226 -1.30891
0.451631 -0.626676 -0.166728
0.12363 -0.648902 0.369346
1.50777 1.44629 1.21079
1.71777 -0.606821 -0.12229
-0.254305 -0.654814 0.29883
3.36435 0.986917 -0.050182
2.28737 -0.617791 -0.548186
-0.250745 0.524538 -1.36817
2.60125 1.57608 0.883503
-0.230996 0.211016 -1.30467
2.50476 0.328568 1.35742
0.533109 1.63461 0.135746
-0.225442 0.0330073 -1.33894
3.4854 0.379865 -2.28215
3.43542 1.03904 -0.0173189
3.57064 1.0981 -0.163486
-0.278417 -0.031418 -0.688069
-0.102142 -0.171445 0.638051
2.45635 0.304181 1.49294
0.916109 -0.593137 0.187662
3.76566 -0.0656434 -1.06089
0.300446 -0.61683 0.772583
2.93321 -0.519947 -2.13843
4.07411 -0.135325 -1.54418
0.704866 -0.623626 -0.393581
0.656778 -0.618792 1.3881
1.80953 -0.46596 0.920024
0.802723 -0.648526 0.150011
0.793685 -0.570937 1.00641
0.953242 -0.518312 0.472498
0.462011 -0.623196 -0.477849
2.37186 -0.631646 -1.2207
0.443659 -0.542633 0.350946
-0.0346314 -0.583907 -0.453098
-1.64317 2.33273 -0.82233
3.61966 -0.657625 -1.72988
2.41555 -0.605861 -0.502754
0.44578 -0.639512 -0.0937794
1.12374 -0.593579 -0.211357
2.49405 -0.636715 -0.20987
0.466144 -0.64215 0.115236
3.5312 -0.642138 -2.06398
0.847354 1.63528 1.36315
-0.0602437 -0.617727 -0.414978
2.28691 -0.604131 -0.979586
3.89463 0.371426 -1.90563
0.101235 -0.610799 0.260948
2.2252 -0.651333 -2.18693
2.36412 -0.614942 0.146096
2.671 -0.654492 -1.26283
-0.169222 -0.611284 -1.37377
2.299 -0.634863 -0.551013
2.27712 -0.632506 0.214045
0.870274 -0.642997 0.138794
2.366 -0.645162 -0.10185
0.682597 -0.627887 0.0243927
3.66489 0.0392376 -1.8021
3.63878 0.030223 -1.8186
-0.216228 -0.625781 0.478284
3.67533 -0.66088 -1.6462
1.04282 1.24832 1.18123
1.76632 -0.587703 -1.97169
3.61045 0.515629 -1.22515
-0.275757 -0.58696 -0.384603
3.72151 0.653446 -1.95586
3.72191 0.436108 -1.34329
3.55894 -0.598608 -1.24322
1.41577 -0.646167 -0.829688
-0.239036 -0.0350016 -1.30898
0.893067 -0.542562 0.155028
-2.12099 0.170652 0.829293
1.06439 -0.626507 -0.601643
1.9234 -0.630624 -1.13815
3.60651 1.63653 -0.641431
0.47615 -0.569212 0.239174
3.30865 0.961757 0.17455
0.393197 -0.618877 -0.214309
1.57056 -0.59964 -0.101763
-0.247598 -0.0327257 -0.66842
2.18191 -0.602358 0.494977
-0.27891 0.352538 -1.30292
2.11147 -0.578695 1.38333
3.66844 0.913238 -1.11438
-0.265939 -0.0331304 -0.676206
-0.099231 -0.164351 0.620453
1.77683 -0.731964 -2.42201
1.4746 -0.63959 -2.10545
3.87924 -0.369844 0.048047
0.388427 -0.397614 -2.71627
2.19824 -0.645153 0.191508
0.739335 -0.617319 -0.182698
3.70537 0.0537929 0.558033
4.95843 1.86791 -2.47992
1.22467 -0.635769 -0.82735
3.32521 1.25423 0.59847
-0.290463 -0.551244 -0.370749
3.23407 -0.597463 -2.00518
0.836803 -0.0297107 -3.44637
0.842875 1.72881 0.637321
-2.23012 -0.666534 0.602362
0.355011 -0.57469 1.44735
3.71371 0.0544965 0.560478
3.31997 1.42333 0.575872
3.31329 0.966623 0.18351
0.774493 -0.612076 -1.22655
1.29088 -0.640328 -0.0597266
3.57307 1.43421 1.59484
3.66169 -0.280896 0.549429
1.42998 -0.681224 0.095808
1.24277 -0.597031 -0.780084
2.81063 -0.709908 1.66224
1.281 -0.651655 -2.49593
0.644402 -0.63008 -0.750516
1.7417 -0.636724 -0.572393
0.720617 -0.605342 -0.859954
3.56998 0.387684 0.555027
3.404 -0.572851 0.226108
0.0115169 -0.573061 0.314668
-0.245651 -0.0429919 -0.974368
1.11943 1.76175 1.50356
-0.229173 0.102323 -1.27557
0.794469 -0.605087 -3.46962
-0.0621625 -0.621662 -1.18525
0.502981 -0.649699 -0.627232
3.49589 1.04782 0.540385
-0.240712 -0.0422608 -0.97331
0.0786407 -0.146957 0.444165
1.87445 -0.660672 0.153471
-1.15283 -0.584941 0.558018
3.46394 -0.633507 0.448649
0.733831 -0.634645 -0.780214
2.77493 -0.66097 -1.42268
0.154768 -0.608575 0.481378
3.6998 -0.712447 -1.20234
1.69134 0.744616 1.42223
2.44235 1.60745 -2.09633
1.57662 -0.644477 -2.77572
2.14016 1.58191 1.47294
-0.217849 -0.0352465 -1.19575
-0.343001 1.73381 -0.649606
2.64688 0.261694 1.7159
-0.0967795 -0.162985 0.608272
-0.281987 -0.0245357 -1.31026
2.20888 1.41351 1.30095
2.28056 -0.63727 -0.0903398
-0.312721 1.71414 -0.640598
-2.02284 1.81438 0.974115
-0.285151 -0.609497 -0.39713
0.726867 -0.612008 -0.865131
0.752505 -0.618741 -1.80595
1.02377 -0.658358 -0.219754
1.18468 -0.65613 0.639425
-2.10509 1.7722 0.913158
3.44913 1.01097 -0.174978
-2.02185 0.903894 1.05092
2.19124 2.11772 1.9725
3.69066 0.958018 -0.100681
1.91511 -0.607613 -2.01313
-1.65974 -0.583347 -0.483109
3.7285 0.622981 -0.0562962
-1.07719 -0.601981 0.490866
0.0979 0.260274 -0.588826
3.62529 -0.30382 -0.581497
0.328591 -0.635555 -0.91763
-0.291012 -0.598372 -0.366527
2.47979 -0.644002 1.43224
3.55354 1.62191 -2.25675
-0.294699 -0.602159 -0.373147
3.4389 -0.678457 -2.209
-3.60538 1.09093 1.4036
0.241576 -0.0301369 -0.723082
2.55862 0.241317 1.53468
-2.02239 1.5458 1.07122
1.17695 -0.663096 -0.112268
2.85724 -0.635473 -0.10155
-1.98972 1.52693 1.05801
0.240042 -0.16407 -0.076319
1.5257 -0.628532 -0.11315
3.34034 1.45 0.573827
1.45273 -0.62185 -2.05252
3.68738 -0.674947 -2.04065
3.02548 -0.665907 -2.21022
3.48116 -0.362042 -0.573767
-0.232168 -0.558941 -0.960426
2.2703 -0.634919 -2.143
3.77668 -0.687364 -1.79862
-3.53549 1.07663 1.35158
-2.01996 0.893564 1.11598
-0.58 -0.630658 0.573652
3.65727 1.00456 0.124184
3.49124 1.0224 -0.19189
2.31429 -0.584315 -1.99106
1.75585 0.133837 -1.30359
1.22732 -0.622243 -0.696654
1.15017 -0.630129 -0.848665
2.40513 -1.04336 -3.36372
1.27008 -0.641558 -1.53528
0.740112 -0.615819 1.45974
0.802068 1.39109 1.41118
2.05731 -0.748082 -1.56787
-2.2049 -0.655957 0.075393
-3.38146 -0.521753 0.821481
3.20698 -0.810923 -2.62674
-2.02175 -0.432303 0.470156
3.62125 -0.265877 -0.0536399
2.93928 -0.432076 0.349654
3.41903 -0.0806571 -0.55248
3.78534 -0.374397 -2.03519
1.67795 -0.632047 -0.134136
2.43805 -0.613233 -2.09841
3.66969 -0.273367 -0.0327809
-0.268644 0.852053 -1.50347
3.52386 1.57247 -2.29571
1.65069 -0.412352 -1.43286
3.67999 -0.270966 -0.0403991
1.95076 -0.0849658 -1.5083
3.28416 1.24757 1.36927
-0.217919 0.141454 -1.28997
-4.00849 1.98261 1.54966
0.0531303 -0.558536 0.986849
-0.9375 -0.638148 1.36232
1.9218 -0.677622 -1.42888
-0.267914 -0.0246432 -0.612325
0.559443 -0.435692 0.103502
0.931263 -0.646812 -1.31652
-0.0787869 -0.024355 -3.04154
3.62524 -0.277139 0.536928
-3.72381 0.682202 0.396599
2.52864 -0.316295 0.460579
1.62932 -0.0519761 -0.333941
-2.20429 1.6709 1.19415
0.874845 -0.588859 -1.35287
-0.222017 0.120739 -1.27752
0.787386 -0.622286 -0.201308
0.189843 -0.64386 0.456612
0.951432 -0.61884 -0.588883
-0.100847 -0.0381876 -2.38257
3.45636 1.50796 0.594599
0.192762 -0.640386 0.45386
3.42114 1.0294 -0.0273096
1.04571 -0.636652 -0.58832
1.37298 -0.625095 -0.479292
0.102663 -0.629533 -0.457935
1.11782 -0.640077 -0.859961
3.60626 -0.370555 0.625587
-1.64266 -0.581874 -0.480646
0.714846 -0.647881 0.291285
2.79668 -0.690223 -2.3348
-0.100269 -0.0424973 -2.38255
-0.0939983 -0.0402908 -2.31282
3.49322 1.61093 0.110621
3.65048 1.01632 0.386677
-0.264325 -0.0240384 -0.609079
-0.26369 -0.0124551 -0.604535
3.61799 -0.361932 0.38722
-3.55996 0.66385 0.356208
-0.209562 -0.590545 0.157386
0.996619 -0.65098 0.0302781
1.24883 -0.634949 -0.81583
0.700265 -0.633588 -1.27587
0.692743 -0.570636 -1.26767
3.80262 -1.4742 3.73681
1.72732 -0.627507 -0.0715058
2.2691 -0.664886 0.189505
2.18866 -0.638219 -0.0442053
3.05141 1.63798 -0.301575
-1.2022 -0.616194 1.3001
1.17722 -0.360711 -1.27953
-2.09254 -0.185391 0.664965
-0.905352 0.171248 -1.51382
-3.51799 0.661115 0.352384
-2.00203 0.897712 1.04121
0.0573194 -0.606626 0.18691
0.503342 -0.307771 0.145765
1.12316 -0.62236 -0.105864
3.44038 1.05021 0.557139
1.09893 -0.629306 -0.735477
0.803293 -0.62392 -1.22027
1.95482 -0.654758 0.466429
1.88972 -0.676021 -2.22105
3.45092 -0.0874573 -0.560137
3.52009 1.63868 0.115091
2.45031 -0.638916 -0.520397
-0.0739778 1.31083 -2.34016
-2.03191 1.81045 0.968977
1.03283 -0.630398 -0.585026
0.79825 -0.61947 -1.32693
1.90881 -0.576296 -0.0987264
-0.316934 0.64007 -1.35391
2.50112 -0.0619295 -0.414927
-2.31941 0.864197 0.959145
3.6966 0.947908 -1.22946
-0.262348 0.450632 -1.29633
3.82286 1.45338 -1.20132
0.702159 -0.637436 -1.27966
1.02098 -0.623159 -1.42362
-0.311108 1.71797 -0.642242
-2.05699 -0.619945 0.56453
-0.250246 -0.613852 -0.777142
-3.51671 1.08058 1.34543
2.67779 -0.661425 -0.0096982
-1.31367 -0.625964 1.31636
4.50823 -0.434139 -1.9139
2.02229 1.61238 -2.10679
-1.11589 -0.592162 0.563735
3.60308 0.678879 0.32756
2.54871 -0.642036 -2.18846
3.45538 0.800776 -1.66502
-3.63698 0.836066 1.47461
-1.97444 0.881832 1.0874
1.55155 -0.630307 -2.08376
2.09609 -0.628808 0.243205
-1.98427 0.507223 0.819283
2.48057 0.00704547 -0.41683
0.0705561 -0.648324 -0.741463
2.23189 -0.656734 -2.49109
2.5506 1.7366 0.947671
2.30032 1.7288 1.64157
-0.0392285 -0.612801 -0.831946
-0.221919 0.0446293 -1.28372
1.74877 0.167928 -1.37232
-0.21604 0.272797 -1.2733
2.29943 -0.64529 -0.550372
2.22316 1.7177 1.61128
-0.216279 0.695811 -1.27604
1.25866 -0.648067 -0.85264
-0.24369 -0.610274 -0.774578
0.814757 -0.542322 -1.99548
-0.233131 -0.558666 -0.959838
0.638133 -0.567862 -1.26598
0.622102 -0.107683 1.65344
-0.207588 -0.585652 -1.4606
1.46821 -0.63182 -2.08429
1.92212 -0.573747 -1.92978
2.49207 0.320452 1.35901
0.777452 -0.633685 -0.652834
0.790508 -0.563104 1.22713
1.23585 -0.64373 -0.608491
-0.887833 0.356397 -1.47503
-1.36077 0.497417 -1.46382
3.696 0.625121 0.543165
3.73525 0.927276 -1.58234
3.75227 0.770609 0.59885
3.61657 1.00076 0.479498
-0.265752 -0.558332 -0.575121
-1.0765 -0.598398 0.478933
-2.15277 -0.195953 0.673917
3.68342 -0.311198 -1.87705
-0.265633 -0.0246319 -0.613285
3.6933 0.962144 -1.83241
4.16553 1.65719 -0.595334
3.6911 0.70423 0.0796105
0.512938 -0.640825 0.144391
4.42508 -1.18352 -3.74174
-2.10639 -0.294993 0.666222
-0.0757907 -0.020331 -3.01576
-0.908667 0.479206 -1.49754
-0.912283 0.542309 -1.50418
2.6085 -0.571633 0.520406
3.93964 1.03888 -1.95444
1.42039 -0.598948 1.46087
-0.944754 0.727433 -1.53424
0.799033 -0.645246 0.150988
0.871118 -0.650655 0.139107
1.46658 -0.640223 -1.52096
0.78447 -0.114312 1.45049
1.64523 -0.657022 -0.793916
2.30155 -0.553037 1.47832
-0.231555 -0.0349253 -1.21844
1.84049 -0.643324 0.147481
3.60373 0.640503 0.601046
-2.44876 -0.210964 0.555331
2.50084 -0.631255 0.502329
-0.239559 -0.0259181 -0.640249
0.812498 -0.411031 0.31116
3.61018 0.996217 0.475283
-2.92627 0.15433 1.15465
0.790726 1.40822 1.44005
3.84883 1.04043 0.702336
3.32941 -0.568489 1.06005
-0.127576 0.857966 -2.17625
3.39396 -0.580197 -1.82948
2.47065 1.67014 0.924378
4.07606 1.07874 -1.42184
-0.0484233 1.68616 -2.99022
2.52551 0.20796 1.35128
-2.10304 -0.191181 1.07205
3.64983 1.02477 0.490062
0.870674 1.41815 1.43114
3.36259 1.481 0.564949
-0.238863 0.80696 -1.27389
1.03023 -0.639168 -0.60104
0.760285 -0.273401 1.45984
2.5389 -0.680226 -2.42035
-0.0717157 -0.0213912 -3.01017
3.74483 0.277896 -1.30351
-0.219199 0.569704 -1.28467
1.10769 -0.631315 -0.739056
2.64647 -0.565728 0.489667
-3.27796 1.59456 0.359083
1.32032 1.7711 -3.11228
3.2676 -0.675507 -2.21357
3.69405 0.696938 -0.0955986
-2.08103 -0.185346 1.07103
3.49472 -0.635359 -1.67885
0.78424 1.73199 1.37503
3.66221 -0.67067 -2.13929
0.411314 -0.574073 0.196293
0.648741 -0.23441 -2.26383
3.94146 1.46631 -1.96726
-0.136413 -0.589343 -2.15222
3.70912 -0.316964 -1.8852
-0.301496 1.70287 -0.409028
-1.94337 -0.167589 1.06895
0.788978 -0.573157 1.01526
-3.16346 0.0836172 0.334933
2.4998 -0.631372 -0.705673
3.34656 1.26339 0.607282
3.65002 1.63017 -2.39829
2.05583 1.59315 -2.34
3.44785 0.0234325 -1.64066
1.62654 -0.534928 -1.81015
3.60066 1.01579 0.343628
2.76342 0.804944 -2.46962
0.738957 -0.605152 -1.34851
0.498007 -0.132598 0.154867
0.597599 1.6132 1.69625
3.65891 0.988053 -0.00980443
3.67914 -0.10802 -1.85814
1.82017 -0.631528 -1.01107
1.87911 -0.627883 -2.09042
-1.46498 1.53822 0.0887708
-0.223171 0.703776 -1.29088
3.21972 1.23622 -1.94813
1.16878 -0.635316 -0.744357
1.0512 -0.637311 -0.604659
4.28749 1.02374 -1.52091
0.710647 -0.633364 0.512998
-2.018 0.894322 1.03666
0.820325 1.73022 1.0409
3.68181 -0.101693 -1.86785
3.66452 0.92942 -1.20875
3.43379 -0.566054 -0.635778
-1.98587 -0.429489 0.465123
2.52053 0.741055 1.53119
3.54777 -0.34322 -0.135355
-0.239589 0.797525 -1.27494
3.68681 0.86337 -1.34367
1.22841 -0.625943 -0.699928
1.0792 -0.694012 1.68876
2.81753 -0.222462 -0.448429
-0.435817 -0.635023 -0.391985
0.618514 -0.467565 -2.31673
1.79436 0.135719 -1.3372
4.68565 -0.470919 -1.85442
0.75134 -0.622965 -1.81229
-0.109392 -0.0217854 -2.41963
2.66 -0.652343 1.49037
0.881946 -0.398093 -1.95888
3.50554 0.980874 0.596925
-0.906287 0.854555 -1.52467
3.64989 1.49211 -2.08452
-2.01384 1.5456 1.06485
-1.67568 1.74629 -1.00164
-1.80649 1.79246 -0.898273
2.75884 1.54847 0.885047
1.90976 -0.0792788 -1.32989
3.87333 1.02123 -1.35749
1.73626 0.752387 1.44994
3.7928 1.40116 -1.34597
-2.00949 1.54128 1.06409
-0.274724 0.160492 -1.28061
2.26495 -0.623747 -0.0523897
3.79247 -0.114062 -1.92105
-0.244707 -0.560179 -0.833583
3.89587 1.44007 -1.94146
3.43161 -0.580983 0.238401
2.36476 -0.640676 -0.0278936
1.16182 -0.305415 1.49931
3.68084 -0.648929 -2.16006
3.51504 0.980764 0.597088
-0.101286 -0.0433491 -2.39945
3.68965 1.44459 -0.607758
0.63219 -0.609928 -1.27514
3.73067 -0.0583786 -0.621252
5.82475 -2.88752 -8.70834
3.69472 0.486051 -0.0969949
2.16073 -0.650312 0.193931
3.69057 -0.279213 0.549551
3.59343 -0.00952994 -1.14734
2.15059 -0.595645 1.43291
2.70973 -0.543637 1.33356
0.88833 -0.369119 -1.97755
2.35213 -0.639735 -0.0766711
3.78856 -0.700156 -2.23991
2.31418 -0.654618 -1.65458
-0.899377 0.665565 -1.48942
0.780116 -0.56962 1.42544
1.4714 1.48333 -2.64371
1.6111 -0.558196 -1.87918
0.891295 -0.612558 -1.40768
3.52265 0.986716 0.605688
-0.210456 -0.561345 -1.21949
2.94712 -0.685671 -1.73334
-0.235356 0.0451207 -1.29928
-0.11529 0.158141 -2.30882
3.59819 -0.182282 -2.4171
2.42621 1.63189 0.884082
4.35239 -0.0736506 -1.22947
3.63236 1.01445 0.487175
1.41133 -0.651103 -0.492925
1.72712 1.75479 1.54343
-0.23188 -0.56525 -1.09923
2.94744 1.57632 1.55686
1.73031 -0.612382 -1.08276
2.75091 -0.66022 1.45226
2.19312 -0.614926 1.4866
0.793889 -0.632073 0.901525
1.61597 -0.621922 -2.08306
1.19297 -0.612296 1.46213
0.830352 1.55494 1.48306
3.63897 -0.633558 -2.11625
0.287035 -0.732984 -1.63557
1.77182 0.142658 -1.31818
0.511556 -0.642243 0.143988
3.74016 0.663985 -1.97389
-0.335636 -0.0304308 -1.32429
-1.42067 0.828002 -1.47488
3.7719 0.858861 -1.9531
2.94419 1.58643 1.56154
3.76103 1.01783 -1.92379
1.41645 -0.658926 -0.494932
3.01831 -0.591203 1.48259
-3.18415 0.442045 1.24422
0.277604 0.437429 -1.0551
-1.41747 0.667731 -1.49372
2.28204 -0.616319 -0.675576
3.86172 1.4171 -1.90684
1.57971 -0.64123 -0.125633
3.30651 1.47863 1.37866
1.78422 -0.656064 -0.671948
-0.283273 -0.0362448 -1.04672
3.97031 -0.134582 -2.0046
2.97461 -0.647855 -0.740889
-0.254038 0.173144 -0.60764
3.26132 1.40105 -0.111588
2.78064 -0.594467 -1.97273
0.262679 -0.565781 1.42778
2.14891 -0.598092 -0.0241596
3.15219 -0.649911 -2.1377
3.67068 1.6226 -2.15277
0.753565 -0.598612 -1.1948
2.55946 -0.618 -1.20541
-0.223112 -0.554162 -0.95506
1.56019 -0.417594 -1.48209
1.27342 -0.612735 -2.08519
0.84543 1.7235 0.605915
-0.259668 -0.560096 -0.703152
-0.236347 0.419114 -1.29115
1.36251 -0.638624 -0.805918
-0.244265 -0.0341122 -0.947724
1.7014 0.749227 1.45048
3.63581 0.173525 -1.84701
-0.184364 0.839368 -1.45754
0.450103 -0.625926 -0.524739
1.60928 -0.614097 -0.362488
0.791543 -0.615612 1.50357
3.19529 1.35184 0.506639
2.50329 -0.641223 -0.722409
1.07974 -0.601018 0.617076
-0.293034 -0.600108 -0.369027
0.311149 -0.628347 -0.886225
0.414365 -0.576613 1.06301
1.32234 -0.545773 -0.902175
3.72767 0.27416 -1.29756
3.95866 1.03055 -1.98134
3.72737 0.43259 -1.9869
2.48291 0.719125 1.50049
-0.274034 -0.0138268 -0.626494
0.170036 -0.612976 0.106663
3.15832 1.58685 1.53707
3.85383 -0.104621 -2.03589
3.64501 0.698901 0.420929
3.72176 0.39672 -1.29657
2.17169 -0.573941 1.45053
2.58026 0.753593 1.55636
3.67384 -0.64021 -2.14405
3.7224 1.45334 -1.34413
2.06764 -0.0144426 1.47771
1.68194 1.73697 1.50846
3.48588 0.968509 0.587122
3.15528 -0.619584 1.56965
0.710805 -0.550042 -1.33415
3.67952 0.70865 0.35918
0.76077 -0.541279 0.144423
1.99808 -0.618966 0.478845
3.62954 0.986071 0.0346986
3.68287 0.753736 0.5827
3.28211 1.65343 -0.622953
3.63731 1.01467 0.483819
0.995661 -0.594809 -1.1381
3.69738 -0.669928 -1.77765
3.64245 0.686629 0.157232
3.24941 -0.613832 1.35577
2.45693 1.67973 0.880051
3.66653 0.225533 -0.0984462
3.26802 1.46226 1.36719
2.49887 1.77517 0.940806
3.3469 1.64129 1.40228
0.696275 -0.595812 -1.39667
3.69457 -0.331447 0.407861
0.0789496 -0.584755 -0.16106
3.67981 0.222739 -0.0959758
3.47527 1.02244 -0.167135
3.84704 0.949488 -0.615883
4.07686 0.487847 -2.05201
3.72908 1.00586 -0.612453
3.79128 0.901362 -1.38955
3.13241 -1.16668 -3.73939
-0.270396 -0.584375 -0.387153
3.57961 -0.640566 -1.58707
1.11823 1.7374 1.45861
3.64401 -0.331293 0.269503
-2.1735 0.0542096 0.233665
1.98586 -0.340156 0.746196
3.66979 0.36289 -0.10438
3.26258 1.62625 -2.46105
3.52767 -0.370762 -0.579839
0.815705 1.71669 1.11602
3.67798 -0.301398 -1.85885
3.83307 -0.333361 -2.02806
3.89654 1.03131 -1.40652
3.762 0.168038 -1.99757
3.65904 -0.334573 0.00264962
-0.818532 -0.0817534 -1.46431
3.6459 0.138373 -1.24273
4.66636 -0.453568 -1.4562
3.20874 1.62403 1.57556
1.8568 -0.658325 -1.39586
-0.015256 -0.578217 -0.45543
0.826498 -0.585751 0.321116
3.48522 -0.589743 -0.393158
-2.0402 1.69162 0.189505
2.73936 -0.638237 1.37504
3.63139 -0.344118 -0.869658
4.66716 1.70099 -2.27135
-2.05613 1.69353 0.185827
4.03359 2.27268 -3.25795
3.61092 0.993254 0.376519
2.77435 -0.632418 0.849193
3.31838 1.69214 -0.622809
-0.0734399 -0.597348 -0.468869
2.07637 2.19879 2.08542
3.49437 -0.360353 -1.92664
1.58622 -0.5856 1.45034
2.49051 0.321174 1.34072
1.63496 0.738241 1.43174
4.31207 -5.25387 3.50003
2.14005 1.58847 1.47795
3.71513 1.49984 -0.68292
0.760701 -0.613668 -1.79531
2.15574 -0.528619 1.39073
2.20941 -0.652277 -2.74079
3.40314 -0.360139 0.591165
1.86955 -0.385236 0.891708
-2.24298 1.77788 0.918563
2.65597 0.151981 -0.914412
0.840367 -0.402092 0.28953
0.674514 -0.602941 -1.79164
1.69785 0.750876 1.44659
0.822786 -0.20385 -2.02901
3.39907 0.888407 -0.0212334
2.22193 1.56864 1.46616
0.116821 -0.6289 -0.733653
-0.207651 -0.587128 -1.46519
2.51976 -0.643166 -0.722909
2.50493 0.737773 1.52177
3.44015 -0.64402 0.322187
3.58765 1.02272 0.64101
3.73196 0.621579 -0.0496248
3.81076 -0.0660135 -1.32794
3.66528 -0.335854 0.00745239
1.98501 -0.584286 0.423302
3.49739 1.52359 -0.58324
-0.250732 -0.561337 -0.83391
3.3891 1.01268 0.524429
-0.0588481 2.00999 0.0990932
3.45194 1.01528 -0.10147
0.672867 -0.635011 0.0388681
3.46068 -0.0848494 -0.559326
3.94121 -0.860734 -2.70303
3.3199 1.60451 1.38262
-2.08161 0.0508648 0.21836
0.744301 -0.621553 -1.81416
4.12082 0.65862 -1.44335
1.61532 -0.0537145 -0.296357
0.893781 -0.586489 0.467421
0.647215 -0.622385 1.59949
2.25224 -0.748766 -1.52863
3.67291 1.00543 0.0371704
1.61755 -0.588236 -1.94889
2.51328 0.733023 1.53067
0.869437 -0.621213 -2.6019
2.1329 -0.625977 0.120784
0.676555 -0.645874 -1.31875
3.39091 1.02613 0.215913
-0.317924 1.7236 -0.642807
1.02593 -0.640662 -1.34329
0.630339 -0.642095 1.64155
1.8673 -0.640003 1.56683
2.01086 -0.628809 0.492575
0.690743 -0.638865 -1.30726
-0.0468283 -0.638281 -0.974665
0.865494 -0.577965 -2.09834
3.45894 -0.34499 -1.87461
2.49332 0.245867 1.52316
2.26588 -0.62916 -0.132536
2.37085 -0.650409 -0.102691
0.0866759 -0.632453 -0.457799
1.34519 -0.635965 1.71349
-0.262976 -0.578761 -1.37891
-0.334508 1.73745 -0.646756
3.49858 1.5269 -0.617686
2.30673 -0.562043 1.50964
3.43186 -0.0599382 -0.977024
1.03329 -0.65397 -1.57661
0.417078 -0.658811 0.192781
3.51069 -0.590903 -0.777516
0.077544 -0.637236 -0.458768
0.624808 -0.59816 1.64911
2.69187 -0.58823 -1.12971
0.73983 -0.628806 0.278314
3.29654 -0.543237 -1.46101
3.49226 -0.0916944 -1.69095
1.1325 1.93904 1.69738
0.730048 -0.469464 0.319655
3.5732 0.0261927 -1.75678
-2.50104 0.473348 0.233838
-1.35444 0.481555 -0.787241
3.57559 0.28838 0.58882
3.52751 0.597395 -1.73861
0.736966 -0.617373 0.492722
3.46982 -0.362385 -0.563232
3.55599 0.345156 -1.19025
3.62975 0.604111 -1.23622
1.5995 1.33076 1.07803
0.798036 -0.233236 -1.95791
3.34364 0.985933 0.558336
1.21084 -0.634312 -0.655026
0.825504 -0.622629 0.209271
0.718053 -0.578447 -1.50056
2.56741 -0.623077 -0.413298
0.86079 -0.240379 -2.01051
3.67738 0.269809 -1.25878
3.5874 1.2427 -1.75819
2.06313 -0.704485 0.829036
1.53928 -0.65458 1.67912
2.48154 -0.644781 1.43109
3.39528 -0.337322 -1.82525
3.67309 -0.0633874 -1.10094
3.34677 0.956663 0.496996
2.21173 -0.621642 0.362262
2.31285 -0.586097 1.59006
0.825139 -0.242791 -2.09973
-0.269913 -0.0379973 -1.01362
3.64984 0.471672 -0.104767
2.3881 1.66397 0.88909
2.60392 -0.584694 -1.15978
2.62943 -0.516808 -2.1639
3.74687 -0.361616 -0.752034
0.615067 -0.28084 -2.35369
3.83937 -0.00945809 -1.28683
1.81029 0.11927 -1.32234
0.835587 -0.610352 0.207162
1.90664 -0.073152 -1.32215
0.787696 1.64193 1.35279
0.0526257 -0.654541 -0.747463
3.70325 0.67317 0.65635
0.6927 1.72743 1.68267
2.50642 -0.639669 -0.724013
3.03268 -0.999619 2.4072
3.71664 0.629273 0.553419
2.21239 1.57984 1.47765
1.38748 -0.579903 -2.56678
3.43367 1.21996 -0.109444
0.680384 -0.915782 -2.84508
-2.31583 -0.453871 0.732389
3.72248 -0.0686742 -1.77914
3.71539 0.705139 -0.0959002
-2.13483 0.0580439 0.239994
0.771895 1.67707 1.38109
3.61157 1.54829 -0.620247
0.290916 0.21277 -1.07507
3.30601 -0.568843 1.28577
3.68838 0.430245 -1.89566
2.22755 1.58811 1.49525
2.70724 -0.539548 1.33271
1.02688 -0.681639 -2.19857
1.1622 -0.60869 -1.98146
1.65067 -0.504717 -1.72217
3.49321 1.03529 -0.0930044
3.12753 1.66067 -0.210939
3.49175 -0.611945 -1.41162
0.44029 -0.627815 -0.161511
0.469064 -0.659904 0.167129
0.19718 -0.55995 0.23958
3.59324 -0.0906143 -1.78717
3.80657 -0.00564416 -1.90007
0.53779 -0.639633 -0.0648094
3.78149 0.979984 -1.18046
0.850591 1.43385 1.45653
0.48567 -0.580499 0.243577
2.48538 -0.646774 -0.374197
2.58884 -0.641731 -0.357553
2.36229 -0.61088 0.144025
0.717134 -0.656887 0.0281924
2.50081 -0.629023 -0.727557
1.58632 -0.617394 0.0932913
1.21699 -0.637273 -0.614734
-0.0357427 -0.609992 -0.808005
0.544368 -0.640009 -0.603191
3.50116 -0.585813 -0.773092
0.712123 -0.596174 1.32157
2.8829 -0.551816 -2.26965
-0.665305 -0.45031 0.26478
1.13203 -0.313352 1.54478
3.83167 -0.0654633 -1.08872
3.75519 -0.00765431 -1.85151
3.74202 0.658268 -1.3291
3.7485 1.26791 -1.305
0.561453 1.44642 -0.0296466
2.2058 -0.605818 -0.0101956
1.30533 -0.650432 -0.0666338
2.38171 -0.64275 -0.492929
2.28834 -0.637678 -0.714296
2.39729 -0.63437 0.102419
2.50211 -0.631576 -0.728299
2.42983 -0.636114 -0.792929
2.3512 -0.608852 0.341059
1.77195 -0.656641 0.516693
2.62727 -0.639708 0.371017
0.797472 -0.643058 -1.40764
2.27861 -0.613962 -1.28892
0.639706 -0.568969 -1.26862
1.31434 -0.643058 -1.29596
1.44275 -0.610076 0.750192
2.27824 -0.626519 1.0663
2.66985 -0.656524 -1.68499
-0.0588621 -0.18203 0.598104
3.63797 0.863142 -1.5008
-0.218752 -0.0222502 -1.27032
3.46408 1.18731 -1.70374
2.2906 -0.638262 -0.688511
1.53009 -0.654627 0.103992
3.53923 0.846835 -1.68844
-0.218566 0.483612 -1.26754
2.47772 -0.601378 0.462743
2.31438 -0.619542 -1.1865
2.48043 -0.651731 -1.46541
2.29529 -0.554615 -1.44134
3.31306 -0.635375 -2.12248
1.17397 -0.300086 1.47438
3.78404 -0.365831 -1.77519
0.753841 -0.0968654 1.47752
3.74958 0.0519859 -1.30597
3.58769 0.622983 -1.21418
3.33592 1.4762 -0.089492
0.590403 -0.601982 -0.243195
3.16382 1.66442 -0.239445
-0.0711543 -0.599727 -0.861021
2.53332 -0.634291 -0.534777
0.432203 -0.575218 0.81594
2.459 -0.621135 0.191798
-0.198545 0.837173 -1.2218
1.11016 -0.583766 1.5256
0.442196 -0.621993 -0.0555907
2.16876 -0.0327743 -0.360163
3.52577 0.044492 -1.17098
0.559758 -0.647321 -0.358293
2.37506 -0.633489 0.15952
2.5572 -0.755016 0.513647
-0.266216 0.0503746 -0.617387
0.66925 -0.671587 1.67696
3.9808 -0.407507 -0.941225
3.7347 0.390943 -1.29198
3.73274 0.975385 -0.642792
